0.0,0.10000000000000009,-2.1126800000000046,533
2.1002692605377106e-14,-343.0,-293.86137275343475,177.00249744835958
6.055985033737409,-346.94715021926777,-300.3664277355807,173.84984630026628
12.214823845875378,-349.7867894566835,-305.97568211365837,170.03787675230473
428.26512993601045,-8171.785482896677,-7221.96288893975,3847.792949128999
12.346895852710206,-176.56883689598888,-157.64127553297914,80.58744155665126
15.077943495344897,-172.34168276987197,-155.42824881079682,76.06748957026971
17.66531029223347,-168.0742003172382,-153.10656775089126,71.64983516082856
20.108441661849373,-163.77011502081814,-150.67913809265693,67.33687488018778
22.26769615361051,-158.44289099865125,-147.2287361920741,62.739438369805406
24.716645476356522,-156.05475781403175,-146.44577746136832,59.40964730746075
26.741819360707318,-151.66039396388004,-143.7254407981765,55.40820614854422
28.812158301858315,-148.22570470059725,-141.8505883998221,51.86302319826629
30.56301855021067,-143.78769730786942,-138.95138316920895,48.07408795760138
32.39295182551661,-140.30928932907386,-136.91508585993816,44.712321884943016
34.352909175152874,-137.78199313119148,-135.760702827806,41.72969574354523
36.234666314352964,-135.22961568046955,-134.54449990087224,38.80113107422303
37.76231774692894,-131.69285234354967,-132.30230521971177,35.66824473530046
39.470180137569514,-129.10114205500977,-130.96271798657153,32.868376486633096
40.790243257493124,-125.53946015096025,-128.5921107826908,29.900487319038547
42.64942823388758,-123.86293340351048,-128.11464143598297,27.44298172711817
43.778578345685666,-120.28065546059625,-125.62792528695103,24.628032699265788
45.154361642707904,-117.63113373864739,-124.06753872963043,22.082853171771262
46.45121758357316,-114.97079796628161,-122.45718051597832,19.599716410171148
47.66919767569147,-112.30159212119769,-120.79854269189745,17.179580893974777
48.80839716909609,-109.62545491711208,-119.09333535372267,14.82336491179079
49.86895488540261,-106.94431887032466,-117.34328576029725,12.531946226445061
51.28942417432213,-105.1589034170025,-116.54625931338796,10.394145911950654
53.11688846952705,-104.247763330039,-116.70816637197011,8.358565377385135
53.989229720377516,-101.53897317877656,-114.83735165929288,6.214136396900576
54.78348708783616,-98.83202690675168,-112.92784485011845,4.137555882904527
55.50000000000007,-96.12881982007265,-110.98144478681664,2.1295105397042824
56.654188240106045,-94.2884030772323,-109.99996196381606,0.19147654901142647
57.761199801419416,-92.43724248105038,-108.98494305979115,-1.7116805055193034
59.36565481663803,-91.41509190605117,-108.9367259405659,-3.613454099626896
59.83364067136999,-88.70702026338941,-106.85798021475061,-5.411085593961234
60.79910225321096,-86.83011669463308,-105.74790180593882,-7.206248260326349
61.129666238417286,-84.13776741499447,-103.61175060857194,-8.878036301279488
62.5887624078131,-83.0580930449184,-103.43928169856085,-10.684943286163943
63.413131958542884,-81.1651076214923,-102.24265702571608,-12.367521177916162
64.82000027813335,-80.04603403006793,-102.00949672696521,-14.150002719693573
65.5643361880271,-78.1365331981357,-100.75744525657241,-15.772530528205474
66.26196192804132,-76.22566760249991,-99.48013373649059,-17.35574380454606
67.58219124224476,-75.05762737321675,-99.16033769473763,-19.08925293662041
68.19983600624992,-73.13537016191697,-97.83201629062881,-20.60981864986119
68.77117867544082,-71.2146402335264,-96.48112303008426,-22.089927869502997
69.29646455628173,-69.29646455628158,-95.10866427351782,-23.529261099477367
70.4953004331879,-68.07652030498166,-94.68179129475902,-25.185537313169625
71.6726627586788,-66.83583928612477,-94.22607732516875,-26.83411130724979
72.82819289678471,-65.57479942316802,-93.74166117963672,-28.474480910109126
73.96153886183173,-64.29378484106962,-93.2286904160135,-30.106146449276032
74.30631098254094,-62.35039813959422,-91.74153229740621,-31.403829159706525
75.38315826132626,-61.04407793183414,-91.17774198685126,-33.0001414827668
75.64903234624539,-59.1035016312631,-89.65229992857257,-34.22877972659773
76.66900896454018,-57.77424222259654,-89.03952563276822,-35.78819966356087
76.85661446562008,-55.839598967784845,-87.47879956579722,-36.94672221029921
77.8194442074543,-54.48976145334927,-86.81892166772698,-38.467795379734724
78.75856939272904,-53.12332582972084,-86.13259788508299,-39.97712042508291
79.67370395481535,-51.74070832642746,-85.42003727873798,-41.47423759131384
80.56456913486053,-50.34233010215435,-84.68145690155538,-42.9586908420358
81.43089356670073,-48.92861711645503,-83.91708173227286,-44.430027998408384
82.27241335952174,-47.49999999999988,-83.12714460697171,-45.88780087688054
83.08887217824267,-46.056913923401886,-82.31188614815252,-47.33156542571177
83.88002132159812,-44.59979846465949,-81.47155469143945,-48.76088186023448
84.64561979789501,-43.12909747525681,-80.60640620993469,-50.17531479681656
85.38543439842093,-41.645258944962215,-79.71670423624661,-51.57443338548359
86.09923976848181,-40.14873486536631,-78.80271978221512,-52.95781144115992
86.78681847604715,-38.63998109220088,-77.86473125635887,-54.32502757348875
87.44796107798189,-37.11945720648086,-76.90302437906932,-55.675665315191615
88.08246618384486,-35.587626374511494,-75.91789209557763,-57.009313248928436
88.69014051723423,-34.04495520680337,-74.90963448672048,-58.32556513261929
90.21049159544727,-32.83393375926404,-74.65622771624359,-60.25269391817057
90.76978325753447,-31.25454282788688,-73.59155746731194,-61.54643273974029
91.30142556433479,-29.665631459994792,-72.50447051707836,-62.82139346071505
92.76156132841449,-28.360055358105296,-72.13899902362077,-64.74570008774708
93.24238450601698,-26.73682351424875,-70.99629839101482,-65.99482290447555
93.69480515003967,-25.10544737494434,-69.83197159816238,-67.22381259787241
95.08898117504769,-23.70834576876726,-69.35406788049278,-69.13881330892379
95.4882663489531,-22.045203325698594,-68.13512100892808,-70.33866328302041
95.85846487191299,-20.37534570014024,-66.89541951946431,-71.5170569579264
97.18109116131876,-18.890090542277758,-66.3050894151149,-73.41622349967126
97.49596754820863,-17.191169589025925,-65.01195581659061,-74.56220999208148
98.7688340595138,-15.643446504022906,-64.34244338034311,-76.45096328490807
100.01707494289863,-14.056483196966427,-63.626611642054385,-78.3388570222131
100.24716131577354,-12.308803683919711,-62.24797418769126,-79.43734789096581
101.44123332756389,-10.66190325330047,-61.45285436171142,-81.30974567457072
102.6080539034498,-8.977041503008605,-60.61115665648641,-83.17837467652011
103.74666122702175,-7.254673269388842,-59.72277469040612,-85.0421762893044
103.85747161447568,-5.442939449265969,-58.227742756991205,-86.07151486091944
104.93603683700505,-3.6644471537624117,-57.260310378385704,-87.91282210775277
106.98370338173386,-1.8674074887891419,-56.77680245670219,-90.59396177691553
108.0,1.9559354136333695e-13,-55.70107791376904,-92.42777917600873
108.98339877204664,1.9023123016641001,-54.578481979045975,-94.2514138996494
109.93299097210053,3.838944637275306,-53.4090469792956,-96.06378580714986
110.8478783577577,5.809291142966966,-52.19282871236929,-97.86381286475778
111.72717362910029,7.812725059342235,-50.929906521722664,-99.65041163668745
112.57000088436722,9.848598930485577,-49.62038336092745,-101.42249777815061
114.37001796735142,12.020773275780355,-48.687757653818075,-104.08494255238173
116.12789974203466,14.258713178402465,-47.67705673322393,-106.7452070111568
116.85163211150527,16.422425913287935,-46.19658579773133,-108.48119294165473
117.53491253082136,18.615701339787684,-44.66992423789746,-110.1977691006509
119.16173811447715,21.011429497698785,-43.456447688141715,-112.82713205571017
120.74014356406263,23.469506431315228,-42.16458181050816,-115.44716803429223
122.26845009172565,25.988961352220137,-40.794292480953374,-118.05593806905532
123.74499822772482,28.568783901671075,-39.34558944019259,-120.65149933480663
125.16814868960348,31.20792453235736,-37.81852641491065,-123.23190609004916
127.50220907015697,34.164113953532976,-36.48963786998155,-126.75624276367958
127.84780555979634,36.659768323661126,-34.52975583791926,-128.33946419139906
129.10114205500972,39.4701801375697,-32.768376486632874,-130.86271798657162
131.24579924873112,42.644345223742995,-31.155054924449217,-134.3372067273586
133.3181191595036,45.90510977845935,-29.430232240638464,-137.7943850570504
134.3760447723848,48.90888049557089,-27.402411531210817,-140.24994778151563
136.30274226859135,52.321720633614106,-25.47219494506804,-143.66079884544482
139.07757818501798,56.19098901238708,-23.58836662520684,-148.03368610803832
140.83724257822325,59.78186265885917,-21.419474399820636,-151.3932543595108
143.4266368498882,63.85765296290092,-19.263069092926084,-155.71378042112053
145.00924592586384,67.6189218785122,-16.856876239247267,-159.0095400139624
146.50342954676407,71.45449692661992,-14.341416954255834,-162.26786553916446
148.79808953945727,75.81641345650462,-11.787866820711905,-166.48345114631633
152.7499335645942,81.21858036195943,-9.1977877970763,-172.65532032224058
154.80768816367288,85.81130278360199,-6.3243131971156386,-176.78697821655723
156.7505980849832,90.50000000000034,-3.309382051229275,-180.86974330102532
160.29028523129477,96.31212000818049,-0.15551013331918717,-186.89993533848732
162.82523446203356,101.7444987327757,3.1912170372452557,-191.87347768330184
166.89544302113913,108.38316796799077,6.77960886078706,-198.7844813043359
169.12366480122824,114.07535230803273,10.507116459515137,-203.62923330662733
173.66023338926598,121.59820450642216,14.612496520652964,-211.39580361187762
177.98373876248814,129.3127555043445,18.991999868091504,-219.0787032104406
181.29026078073517,136.61201025551537,23.540212749608223,-225.67612447666647
186.75854860479274,145.91176965218148,28.687403098700592,-235.15737587470593
191.17790651841446,154.81281619826046,34.03398707810341,-243.53433198867415
197.63946632469592,165.8392032991276,40.14816545369652,-254.7570674136831
203.01687707992525,176.47987879844698,46.49104042993007,-264.8520393575837
208.8236959591473,188.02570038683967,53.38792153653833,-275.78173160615114
215.7493419776548,201.1895162184376,61.09396501709087,-288.5044480573549
223.71467790531997,216.0387532127487,69.70775320621688,-302.98716426622417
232.63813101037354,232.63813101037474,79.32680511967457,-319.19337291823825
242.43577129018942,251.04959031818984,90.04747471730859,-337.0831138966417
253.70338994324874,272.06357700233207,102.23968781935679,-357.57449760166077
266.98311193718365,296.51478536548103,116.33895799115908,-381.5624776599493
282.1053824659173,324.5251194957927,132.53717319580372,-408.96466202944674
300.1818137236129,357.74275493656353,151.67307440807218,-441.583459617409
320.95339943541603,396.344440343056,174.0316717135168,-479.28812797210435
344.7704261823675,441.2860220197652,200.25121507182078,-522.8717495833397
620.4712888697596,823.3932108587607,385.4243109701189,-956.1474054935832
598.3653868337354,823.5793002736981,396.9848758956285,-937.3043995577001
577.5914714055011,824.8861085990163,408.81863102518923,-920.1805696779054
565.9032183123935,838.9860234257038,426.926798633516,-917.4388322074097
4456.781223527948,6862.841257497418,3581.0735390497093,-7357.71226370434
710.6217333367248,1137.232496945769,607.8074149386333,-1195.2456179472179
481.56060004089846,801.4514261564763,438.26922293170446,-825.8207517860536
4091.4999999999804,7086.6858791680725,3961.2439429001506,-7160.209729672094
3967.197122475756,7157.013063521687,4085.6052618800045,-7089.985940529805
3841.685798276924,7225.16015236461,4208.722065918943,-7017.602442526826
388.61586777704986,762.7015847052439,453.0070470113163,-726.2061443758321
3587.1910941749993,7354.831680866094,4451.072509404348,-6866.445165949532
3458.285235824122,7416.316621320916,4570.232326558027,-6787.717431345955
3328.3259502892515,7475.542479889413,4688.000006672203,-6706.922061797726
3197.352824427705,7532.4912158013285,4804.339676570669,-6624.083668357092
3065.405753922386,7587.145481920031,4919.21589806297,-6539.227484401169
2932.5249311291695,7639.488630026611,5032.593678739207,-6452.379357945609
266.43369165069373,732.0205515922235,489.7369641901558,-605.7041811557676
2664.1242079228896,7737.178504129218,5254.7162407218275,-6272.81369536472
2528.6860649701707,7782.495472843249,5363.393361344083,-6180.150856679704
2392.4776597461305,7825.441818045527,5470.436740392116,-6085.605453714309
2255.54048265048,7866.00445786327,5575.813771415713,-5989.20628591416
2117.9162460739026,7904.171036523452,5679.492355550417,-5890.982717399609
168.86148312856594,677.2664169406461,493.1499152002945,-493.8708100059581
157.6906890950472,683.0334154144504,503.85207103466706,-487.2746921148827
146.36983033570036,688.6159109165997,514.4735520242882,-480.4548504255389
134.90195973121493,694.0104186974988,525.0097981239156,-473.4121031968299
123.63750249885213,701.1831201446925,536.9645809531521,-467.46073274153986
54.908497229119895,346.6786075488935,268.69388113002765,-225.74197626500387
46.62298882162084,331.7398030284262,260.1684861627863,-210.93876138701174
38.876320546241,316.62222237358185,251.21201957641702,-196.50498778092552
31.985709759900942,304.3236999826918,244.2292370237125,-184.25856308513386
25.62378836781052,292.8812412389733,237.7072053873489,-172.90660249521326
19.67132559584238,281.3130621732705,230.8662857075372,-161.84060060283156
14.183044141836854,270.62860391848955,224.5430819933576,-151.62806045331328
9.17856763275685,262.8397875060222,220.45116394608576,-143.32344409062287
4.415458828631851,252.96146687456698,214.44460121083787,-134.147953472389
